ply
format ascii 1.0
element vertex 1530
property double x
property double y
property double z
property uchar red
property uchar green
property uchar blue
end_header
-0.17831 1.5418 16.62 68 68 68
-0.1769 1.5776 16.383 64 64 64
-0.1759 1.6196 16.217 84 84 84
-0.17397 1.6408 15.888 100 100 100
-0.17222 1.6628 15.59 96 96 96
-0.17018 1.6758 15.239 84 84 84
-0.15783 1.6879 13.109 87 87 87
-0.14796 1.585 11.383 75 75 75
-0.14738 1.6087 11.288 78 78 78
-0.14729 1.647 11.279 57 57 57
-0.14715 1.6839 11.263 69 69 69
-0.14686 1.7154 11.218 88 88 88
-0.14645 1.7423 11.152 94 94 94
-0.14473 1.7231 10.851 99 99 99
-0.1377 1.6145 9.6174 94 94 94
-0.13724 1.6307 9.54 82 82 82
-0.13714 1.6611 9.5296 91 91 91
-0.13689 1.6847 9.4897 91 91 91
-0.13638 1.6978 9.405 84 84 84
-0.13634 1.7294 9.4029 117 117 117
-0.13623 1.7583 9.3898 105 105 105
-0.13581 1.7733 9.3193 108 108 108
-0.12041 1.6109 19.318 83 83 83
-0.11887 1.588 18.344 64 64 64
-0.11602 1.5337 16.544 63 63 63
-0.11571 1.5773 16.381 64 64 64
-0.11545 1.6234 16.25 85 85 85
-0.1149 1.6449 15.924 95 95 95
-0.11443 1.67 15.648 97 97 97
-0.11392 1.6895 15.347 84 84 84
-0.11326 1.693 14.943 86 86 86
-0.11008 1.6645 12.957 82 82 82
-0.10762 1.63 11.411 96 96 96
-0.10755 1.6667 11.39 78 78 78
-0.10737 1.6886 11.289 48 48 48
-0.10721 1.714 11.211 61 61 61
-0.10705 1.7371 11.125 91 91 91
-0.10659 1.7179 10.825 96 96 96
-0.10466 1.6014 9.5556 97 97 97
-0.10454 1.6213 9.4967 68 68 68
-0.10447 1.6481 9.4711 87 87 87
-0.10436 1.6673 9.4122 90 90 90
-0.10415 1.6709 9.2876 82 82 82
-0.10411 1.7018 9.2846 114 114 114
-0.10406 1.7293 9.2674 105 105 105
-0.10392 1.7424 9.1911 107 107 107
-0.04689 1.6138 19.35 62 62 62
-0.049527 1.5865 18.33 80 80 80
-0.054241 1.53 16.51 63 63 63
-0.054736 1.5684 16.301 88 88 88
-0.055094 1.611 16.144 82 82 82
-0.055884 1.6331 15.826 80 80 80
-0.056456 1.6628 15.591 82 82 82
-0.057224 1.6812 15.283 79 79 79
-0.058139 1.69 14.922 81 81 81
-0.063521 1.646 12.836 79 79 79
-0.06388 1.6688 12.686 100 100 100
-0.067364 1.6559 11.33 90 90 90
-0.067344 1.6945 11.322 62 62 62
-0.067635 1.712 11.201 48 48 48
-0.067949 1.727 11.072 83 83 83
-0.068686 1.7111 10.79 96 96 96
-0.072022 1.5965 9.5329 93 93 93
-0.072147 1.6168 9.4759 65 65 65
-0.072199 1.6424 9.4451 89 89 89
-0.072328 1.6615 9.3868 92 92 92
-0.072817 1.6509 9.2001 82 82 82
-0.072818 1.6793 9.1882 110 110 110
-0.072845 1.7055 9.167 103 103 103
0.030121 1.5868 19.865 56 56 56
0.026904 1.6168 19.383 69 69 69
0.020924 1.6029 18.496 75 75 75
0.0080415 1.5386 16.592 91 91 91
0.0065629 1.5756 16.367 99 99 99
0.0055847 1.6191 16.215 77 77 77
0.0028058 1.63 15.801 61 61 61
0.00066915 1.649 15.48 66 66 66
-0.0017636 1.6599 15.117 62 62 62
-0.0038523 1.6745 14.805 78 78 78
-0.0061193 1.6829 14.467 89 89 89
-0.015776 1.6761 13.033 81 81 81
-0.016896 1.6966 12.864 101 101 101
-0.026373 1.6787 11.458 93 93 93
-0.027261 1.6948 11.324 75 75 75
-0.028358 1.7042 11.16 63 63 63
-0.029317 1.7161 11.015 71 71 71
-0.031092 1.7039 10.753 99 99 99
-0.039283 1.6006 9.5525 89 89 89
-0.03969 1.6196 9.489 53 53 53
-0.039908 1.644 9.4529 76 76 76
-0.040287 1.663 9.3938 91 91 91
-0.041317 1.6602 9.2411 77 77 77
-0.041634 1.6799 9.1909 106 106 106
-0.041772 1.7053 9.1666 107 107 107
-0.042485 1.7107 9.0599 104 104 104
0.10196 1.5548 19.512 60 60 60
0.09734 1.5886 19.086 85 85 85
0.088637 1.5821 18.288 88 88 88
0.078965 1.5601 17.403 92 92 92
0.071572 1.5529 16.726 98 98 98
0.068944 1.5882 16.482 100 100 100
0.067168 1.6305 16.315 88 88 88
0.063245 1.6482 15.953 76 76 76
0.058419 1.6526 15.51 53 53 53
0.053649 1.6541 15.073 51 51 51
0.049609 1.6607 14.702 81 81 81
0.045597 1.6646 14.333 84 84 84
0.031516 1.6772 13.041 77 77 77
0.029118 1.6896 12.82 97 97 97
0.028551 1.727 12.764 88 88 88
0.014911 1.689 11.517 93 93 93
0.013009 1.698 11.342 77 77 77
0.010571 1.6964 11.118 81 81 81
0.0090709 1.7092 10.979 62 62 62
0.0064542 1.7012 10.74 90 90 90
-0.006207 1.608 9.5877 83 83 83
-0.0070642 1.6235 9.5077 50 50 50
-0.0074202 1.6483 9.4727 57 57 57
-0.0081333 1.6656 9.4057 71 71 71
-0.0098741 1.6614 9.2464 76 76 76
-0.011047 1.6676 9.1382 106 106 106
-0.011369 1.6911 9.1066 108 108 108
-0.012472 1.6974 9.0048 108 108 108
0.17404 1.5417 19.37 59 59 59
0.16235 1.542 18.595 85 85 85
0.15465 1.5617 18.082 91 91 91
0.14593 1.5703 17.503 91 91 91
0.13913 1.5877 17.052 82 82 82
0.11721 1.6627 15.593 92 92 92
0.10898 1.6508 15.047 83 83 83
0.1033 1.6565 14.67 78 78 78
0.097384 1.657 14.278 83 83 83
0.084612 1.6877 13.429 59 59 59
0.081959 1.7093 13.251 56 56 56
0.080104 1.7378 13.126 74 74 74
0.078986 1.773 13.05 83 83 83
0.074646 1.7726 12.762 82 82 82
0.049886 1.6588 11.127 77 77 77
0.047453 1.6679 10.965 88 88 88
0.04577 1.6849 10.853 70 70 70
0.043538 1.6941 10.704 83 83 83
0.027369 1.6182 9.6365 75 75 75
0.026114 1.6331 9.5523 65 65 65
0.025496 1.6564 9.5098 47 47 47
0.024058 1.6674 9.4136 46 46 46
0.02017 1.6716 9.1555 112 112 112
0.23865 1.4993 18.902 47 47 47
0.22768 1.517 18.332 83 83 83
0.21992 1.5463 17.927 89 89 89
0.21035 1.5625 17.429 92 92 92
0.2037 1.5909 17.082 80 80 80
0.20009 1.6339 16.893 91 91 91
0.19663 1.6761 16.71 93 93 93
0.17323 1.7078 15.493 95 95 95
0.13153 1.6727 13.329 75 75 75
0.1283 1.6953 13.16 79 79 79
0.12649 1.7279 13.064 51 51 51
0.12561 1.7675 13.016 52 52 52
0.12123 1.7769 12.788 72 72 72
0.11558 1.7732 12.495 88 88 88
0.088145 1.6494 11.076 76 76 76
0.085127 1.6591 10.919 87 87 87
0.082951 1.6758 10.805 79 79 79
0.080204 1.6858 10.662 75 75 75
0.060999 1.6247 9.6673 67 67 67
0.059494 1.6408 9.5883 86 86 86
0.058208 1.6587 9.5205 57 57 57
0.056095 1.6665 9.4103 46 46 46
0.053203 1.6644 9.2602 74 74 74
0.051214 1.6717 9.1565 109 109 109
0.049256 1.6786 9.0544 107 107 107
0.31232 1.5068 18.986 45 45 45
0.29256 1.499 18.143 72 72 72
0.28547 1.5374 17.839 89 89 89
0.27493 1.5582 17.388 92 92 92
0.26459 1.5762 16.946 90 90 90
0.25856 1.6108 16.687 93 93 93
0.25568 1.6588 16.562 95 95 95
0.19027 1.6378 13.77 69 69 69
0.18183 1.6844 13.408 77 77 77
0.17878 1.713 13.276 94 94 94
0.17721 1.7504 13.208 86 86 86
0.176 1.7898 13.155 57 57 57
0.17014 1.796 12.904 67 67 67
0.16316 1.792 12.606 90 90 90
0.15663 1.789 12.328 95 95 95
0.11741 1.6109 10.661 85 85 85
0.11489 1.6275 10.552 85 85 85
0.11226 1.6424 10.439 70 70 70
0.10727 1.6364 10.226 95 95 95
0.094462 1.6273 9.6801 62 62 62
0.09275 1.6446 9.6063 91 91 91
0.090986 1.6608 9.5303 82 82 82
0.088197 1.6666 9.411 64 64 64
0.083584 1.6539 9.2146 76 76 76
0.080821 1.6577 9.0965 105 105 105
0.073472 1.673 8.782 107 107 107
0.38363 1.5043 18.96 57 57 57
0.36053 1.497 18.123 64 64 64
0.35061 1.5298 17.763 73 73 73
0.33796 1.5494 17.303 88 88 88
0.32621 1.5687 16.877 92 92 92
0.31771 1.5975 16.568 96 96 96
0.31504 1.6481 16.47 97 97 97
0.3087 1.6819 16.238 91 91 91
0.29818 1.7539 15.854 96 96 96
0.22887 1.6751 13.346 76 76 76
0.2253 1.7036 13.215 96 96 96
0.22365 1.7419 13.154 94 94 94
0.22241 1.7821 13.108 88 88 88
0.21693 1.7966 12.909 74 74 74
0.20934 1.7966 12.634 91 91 91
0.20313 1.803 12.408 96 96 96
0.15102 1.586 10.528 87 87 87
0.14805 1.6022 10.419 92 92 92
0.14448 1.6132 10.29 65 65 65
0.13978 1.6151 10.119 87 87 87
0.12947 1.6409 9.7447 62 62 62
0.12719 1.6564 9.6614 95 95 95
0.12495 1.6716 9.5797 93 93 93
0.12079 1.6706 9.4292 92 92 92
0.11473 1.6528 9.2101 76 76 76
0.11127 1.6549 9.0846 100 100 100
0.45782 1.5107 19.031 57 57 57
0.42791 1.4938 18.09 87 87 87
0.41776 1.5304 17.769 70 70 70
0.39687 1.5296 17.112 68 68 68
0.38202 1.5436 16.644 96 96 96
0.37649 1.5863 16.468 94 94 94
0.37462 1.6409 16.408 95 95 95
0.36815 1.6776 16.203 91 91 91
0.36457 1.7239 16.089 96 96 96
0.35807 1.7575 15.883 97 97 97
0.27574 1.6674 13.295 64 64 64
0.2706 1.6907 13.132 95 95 95
0.26864 1.7285 13.069 94 94 94
0.26721 1.7683 13.023 94 94 94
0.26087 1.7824 12.823 82 82 82
0.25444 1.7943 12.62 94 94 94
0.24991 1.8148 12.477 97 97 97
0.18468 1.568 10.431 87 87 87
0.18208 1.5886 10.348 98 98 98
0.17858 1.603 10.238 73 73 73
0.17376 1.6084 10.086 76 76 76
0.1686 1.6103 9.9237 94 94 94
0.16251 1.6711 9.7299 89 89 89
0.15972 1.6851 9.6416 90 90 90
0.15343 1.6739 9.4439 91 91 91
0.14524 1.6475 9.187 77 77 77
0.14063 1.645 9.0421 92 92 92
0.13431 1.658 8.8427 103 103 103
0.13246 1.6734 8.784 79 79 79
0.58686 1.5747 20.61 36 36 36
0.49724 1.4964 18.119 91 91 91
0.48693 1.5363 17.831 98 98 98
0.47299 1.5635 17.442 71 71 71
0.45381 1.5719 16.908 70 70 70
0.43933 1.5903 16.505 80 80 80
0.43202 1.6283 16.301 90 90 90
0.42395 1.6622 16.075 92 92 92
0.41874 1.704 15.929 98 98 98
0.41276 1.7418 15.761 99 99 99
0.32245 1.7087 13.25 88 88 88
0.31727 1.734 13.105 96 96 96
0.3154 1.7729 13.052 93 93 93
0.30805 1.7863 12.847 82 82 82
0.30095 1.799 12.649 94 94 94
0.29712 1.826 12.541 95 95 95
0.28799 1.8259 12.287 94 94 94
0.21896 1.5572 10.374 86 86 86
0.21536 1.5742 10.273 96 96 96
0.21334 1.5988 10.217 83 83 83
0.20678 1.5979 10.034 61 61 61
0.20186 1.6047 9.8968 87 87 87
0.20122 1.635 9.8783 70 70 70
0.1992 1.657 9.8214 88 88 88
0.1978 1.6822 9.7818 90 90 90
0.19461 1.6962 9.6926 87 87 87
0.18613 1.6768 9.4571 87 87 87
0.17376 1.6308 9.1143 76 76 76
0.16888 1.6301 8.9786 92 92 92
0.16477 1.6333 8.864 105 105 105
0.16185 1.6435 8.7824 99 99 99
0.56579 1.4966 18.122 88 88 88
0.55275 1.5328 17.796 102 102 102
0.53727 1.5601 17.41 93 93 93
0.51603 1.5687 16.88 68 68 68
0.49913 1.585 16.458 54 54 54
0.48713 1.6118 16.158 69 69 69
0.47435 1.6338 15.839 92 92 92
0.46817 1.6735 15.684 96 96 96
0.46116 1.7093 15.509 99 99 99
0.4455 1.7152 15.118 98 98 98
0.36936 1.7041 13.22 79 79 79
0.3657 1.7376 13.128 94 94 94
0.36417 1.7788 13.089 89 89 89
0.35681 1.7958 12.905 79 79 79
0.34688 1.8004 12.657 95 95 95
0.34236 1.8263 12.544 94 94 94
0.33356 1.8324 12.324 95 95 95
0.25615 1.5622 10.401 87 87 87
0.25098 1.5738 10.272 93 93 93
0.25 1.6046 10.246 89 89 89
0.24619 1.6212 10.151 60 60 60
0.23894 1.6196 9.9705 78 78 78
0.23805 1.6493 9.9476 74 74 74
0.23674 1.6766 9.9142 95 95 95
0.23519 1.7023 9.8749 93 93 93
0.21875 1.6786 9.4658 86 86 86
0.20146 1.6129 9.0362 76 76 76
0.19025 1.6079 8.7569 116 116 116
0.64774 -4.0125 18.545 151 151 151
0.63347 1.4949 18.105 85 85 85
0.61945 1.5319 17.788 104 104 104
0.60323 1.5611 17.421 101 101 101
0.57923 1.5685 16.879 92 92 92
0.56104 1.586 16.468 80 80 80
0.54683 1.6103 16.146 55 55 55
0.53015 1.6254 15.769 73 73 73
0.50041 1.6565 15.097 93 93 93
0.45435 1.6777 14.057 45 45 45
0.44875 1.7107 13.929 45 45 45
0.43931 1.7298 13.716 65 65 65
0.42521 1.7311 13.397 78 78 78
0.41645 1.7487 13.199 92 92 92
0.41148 1.7783 13.086 89 89 89
0.40155 1.7886 12.862 78 78 78
0.38769 1.7819 12.549 93 93 93
0.38214 1.8052 12.423 94 94 94
0.29371 1.5678 10.431 82 82 82
0.28653 1.5732 10.269 93 93 93
0.28476 1.601 10.228 96 96 96
0.2844 1.6347 10.22 74 74 74
0.28412 1.6687 10.212 68 68 68
0.2826 1.6969 10.178 80 80 80
0.28075 1.7232 10.135 91 91 91
0.2782 1.7458 10.077 92 92 92
0.27553 1.7673 10.016 89 89 89
0.22335 1.5982 8.8416 82 82 82
0.71581 -4.0019 18.5 161 161 161
0.70044 1.4921 18.077 87 87 87
0.68461 1.528 17.749 103 103 103
0.66649 1.5563 17.375 104 104 104
0.64013 1.5633 16.831 103 103 103
0.62352 1.5881 16.488 102 102 102
0.60922 1.6155 16.192 94 94 94
0.59203 1.6334 15.837 67 67 67
0.49976 1.6601 13.932 60 60 60
0.49634 1.7007 13.86 70 70 70
0.48913 1.7291 13.711 67 67 67
0.47703 1.7408 13.461 73 73 73
0.4677 1.7595 13.268 84 84 84
0.46197 1.7884 13.149 84 84 84
0.42762 1.7635 12.441 94 94 94
0.41912 1.7777 12.265 93 93 93
0.33142 1.573 10.459 83 83 83
0.32415 1.5808 10.309 93 93 93
0.32029 1.6011 10.229 97 97 97
0.31951 1.6332 10.212 89 89 89
0.31847 1.6641 10.19 55 55 55
0.31669 1.6918 10.153 74 74 74
0.31515 1.7201 10.121 94 94 94
0.31216 1.7417 10.059 95 95 95
0.31042 1.7685 10.022 89 89 89
0.78075 -3.979 18.403 168 168 168
0.78562 -3.9305 18.494 167 167 167
0.79035 -3.8806 18.583 141 141 141
0.7623 1.4806 17.956 84 84 84
0.74867 1.5226 17.696 100 100 100
0.73038 1.5534 17.348 103 103 103
0.70345 1.5637 16.836 105 105 105
0.68519 1.5881 16.489 106 106 106
0.66891 1.6139 16.179 109 109 109
0.65255 1.637 15.868 100 100 100
0.54028 1.6322 13.734 52 52 52
0.53799 1.6759 13.69 74 74 74
0.53259 1.7105 13.587 69 69 69
0.52242 1.7303 13.393 49 49 49
0.51218 1.7484 13.198 63 63 63
0.50716 1.7808 13.102 87 87 87
0.49374 1.786 12.847 70 70 70
0.47537 1.7732 12.498 88 88 88
0.46885 1.7965 12.374 94 94 94
0.37222 1.5882 10.542 79 79 79
0.36031 1.6177 10.315 95 95 95
0.3583 1.6458 10.276 95 95 95
0.35683 1.6757 10.248 64 64 64
0.35434 1.7014 10.2 66 66 66
0.35118 1.724 10.139 92 92 92
0.34632 1.7391 10.047 92 92 92
0.34425 1.7651 10.007 90 90 90
0.8476 -3.9674 18.353 168 168 168
0.85082 -3.9108 18.409 143 143 143
0.85974 -3.8766 18.566 85 85 85
0.87002 -3.8463 18.746 102 102 102
0.83352 1.4863 18.017 76 76 76
0.81405 1.5203 17.674 97 97 97
0.79245 1.5477 17.293 101 101 101
0.76329 1.5576 16.78 106 106 106
0.74501 1.5845 16.457 107 107 107
0.72873 1.6128 16.17 102 102 102
0.71145 1.6366 15.866 99 99 99
0.58471 1.6181 13.635 71 71 71
0.58206 1.661 13.587 59 59 59
0.57656 1.696 13.49 60 60 60
0.56538 1.7149 13.293 67 67 67
0.55422 1.7322 13.096 49 49 49
0.54827 1.7626 12.991 59 59 59
0.53182 1.7617 12.701 62 62 62
0.51949 1.7706 12.484 83 83 83
0.5113 1.7904 12.339 94 94 94
0.41815 1.6181 10.702 72 72 72
0.41583 1.6477 10.661 91 91 91
0.41067 1.6672 10.569 94 94 94
0.40236 1.675 10.423 98 98 98
0.40175 1.709 10.412 79 79 79
0.39964 1.7374 10.374 62 62 62
0.39476 1.7553 10.288 91 91 91
0.38144 1.7405 10.054 94 94 94
0.37688 1.7575 9.973 93 93 93
0.91436 -3.957 18.309 158 158 158
0.91512 -3.8904 18.321 140 140 140
0.92463 -3.8563 18.476 81 81 81
0.93685 -3.8308 18.676 73 73 73
0.93019 -3.7358 18.566 102 102 102
0.87144 1.5054 17.524 89 89 89
0.84178 1.5212 17.037 102 102 102
0.81703 1.5416 16.631 106 106 106
0.80146 1.5753 16.375 106 106 106
0.7882 1.6112 16.157 95 95 95
0.77738 1.6501 15.979 95 95 95
0.76228 1.6789 15.731 98 98 98
0.74436 1.6997 15.437 91 91 91
0.63075 1.6096 13.575 58 58 58
0.62429 1.6437 13.468 73 73 73
0.6163 1.6731 13.337 57 57 57
0.60455 1.692 13.144 82 82 82
0.59343 1.7109 12.961 66 66 66
0.58226 1.7282 12.777 44 44 44
0.57099 1.7437 12.592 57 57 57
0.56286 1.7663 12.459 77 77 77
0.55677 1.7937 12.358 92 92 92
0.45021 1.6015 10.614 73 73 73
0.44948 1.6363 10.601 88 88 88
0.44674 1.6644 10.556 92 92 92
0.43701 1.6695 10.396 96 96 96
0.4348 1.6983 10.359 87 87 87
0.43307 1.7283 10.33 67 67 67
0.42817 1.7472 10.25 90 90 90
0.4145 1.7345 10.026 95 95 95
0.40943 1.7508 9.9425 96 96 96
0.98463 -3.9608 18.325 132 132 132
0.9889 -3.9064 18.39 131 131 131
0.99909 -3.8721 18.546 100 100 100
1.0112 -3.8432 18.732 106 106 106
1.0091 -3.7648 18.698 100 100 100
0.89069 1.4975 16.808 100 100 100
0.86948 1.5255 16.482 104 104 104
0.85264 1.5582 16.223 109 109 109
0.83758 1.5919 15.991 100 100 100
0.8268 1.6316 15.825 98 98 98
0.81054 1.6595 15.575 101 101 101
0.78588 1.6688 15.196 98 98 98
0.68067 1.6106 13.582 66 66 66
0.67091 1.6383 13.432 47 47 47
0.65874 1.6593 13.245 54 54 54
0.6404 1.6642 12.963 78 78 78
0.6248 1.6735 12.723 83 83 83
0.61553 1.6964 12.581 58 58 58
0.60615 1.7178 12.436 55 55 55
0.60151 1.7503 12.365 74 74 74
0.59687 1.7822 12.293 92 92 92
0.58869 1.8039 12.167 91 91 91
0.49055 1.6479 10.663 88 88 88
0.48419 1.6662 10.565 91 91 91
0.47477 1.6743 10.42 95 95 95
0.46634 1.6842 10.291 87 87 87
0.46533 1.7167 10.275 69 69 69
0.46103 1.7383 10.208 87 87 87
0.44971 1.7363 10.035 93 93 93
0.44518 1.7556 9.9647 96 96 96
0.4388 1.768 9.8666 98 98 98
1.0494 -3.9452 18.259 113 113 113
1.0521 -3.8851 18.298 87 87 87
1.0608 -3.8442 18.423 142 142 142
1.0714 -3.8082 18.575 151 151 151
1.0682 -3.7277 18.528 96 96 96
1.0922 -3.7316 18.875 142 142 142
1.0908 -3.6554 18.853 174 174 174
0.94368 1.5449 16.664 105 105 105
0.91689 1.5641 16.277 108 108 108
0.89626 1.5905 15.979 108 108 108
0.88143 1.6243 15.764 101 101 101
0.86946 1.6614 15.591 105 105 105
0.85215 1.6872 15.341 104 104 104
0.69708 1.6384 13.105 51 51 51
0.67333 1.6334 12.762 58 58 58
0.65779 1.6442 12.538 79 79 79
0.65086 1.6731 12.437 66 66 66
0.64468 1.703 12.348 53 53 53
0.641 1.7382 12.294 58 58 58
0.63433 1.7655 12.198 88 88 88
0.61765 1.7664 11.957 94 94 94
0.53011 1.6541 10.695 91 91 91
0.52163 1.6676 10.573 91 91 91
0.51424 1.6833 10.466 89 89 89
0.5041 1.69 10.32 84 84 84
0.50261 1.7214 10.298 64 64 64
0.49929 1.747 10.249 84 84 84
0.4891 1.7508 10.102 93 93 93
0.48069 1.7591 9.9808 94 94 94
0.47326 1.7695 9.8736 93 93 93
1.1082 -3.9126 18.12 104 104 104
1.1074 -3.8412 18.108 112 112 112
1.1132 -3.7906 18.186 140 140 140
1.1235 -3.7527 18.325 122 122 122
1.1196 -3.6718 18.272 127 127 127
1.1379 -3.6558 18.52 117 117 117
1.15 -3.6202 18.685 152 152 152
1.3582 1.8933 21.453 89 89 89
0.98422 1.5741 16.367 110 110 110
0.93394 1.5562 15.683 114 114 114
0.90179 1.562 15.245 100 100 100
0.89256 1.6028 15.119 109 109 109
0.88045 1.6376 14.954 112 112 112
0.85891 1.654 14.661 108 108 108
0.74412 1.6374 13.099 85 85 85
0.71763 1.6297 12.738 49 49 49
0.6983 1.6343 12.475 40 40 40
0.68865 1.6579 12.343 50 50 50
0.68356 1.6907 12.274 68 68 68
0.6801 1.7266 12.226 56 56 56
0.67652 1.7619 12.177 62 62 62
0.56213 1.64 10.622 75 75 75
0.54872 1.6416 10.439 86 86 86
0.54132 1.6579 10.338 87 87 87
0.53342 1.6719 10.231 86 86 86
0.53072 1.6997 10.194 64 64 64
0.52786 1.7268 10.154 84 84 84
0.518 1.733 10.02 87 87 87
0.5101 1.744 9.9124 89 89 89
0.50363 1.7584 9.8242 86 86 86
0.49349 1.7607 9.6862 93 93 93
1.1832 -3.9323 18.204 115 115 115
1.1805 -3.8553 18.168 105 105 105
1.1904 -3.8152 18.295 124 124 124
1.1985 -3.7691 18.399 138 138 138
1.2012 -3.7071 18.434 125 125 125
1.227 -3.7085 18.766 106 106 106
1.2405 -3.6736 18.939 116 116 116
1.274 -3.6904 19.37 78 78 78
1.2862 -3.6484 19.528 87 87 87
1.3042 -3.6196 19.759 82 82 82
1.4182 1.8649 21.166 90 90 90
1.3559 1.8634 20.364 97 97 97
1.3066 1.8731 19.729 97 97 97
0.98757 1.5492 15.624 110 110 110
0.94923 1.5481 15.13 100 100 100
0.93287 1.578 14.919 109 109 109
0.91688 1.6066 14.713 111 111 111
0.89332 1.6207 14.409 109 109 109
0.85216 1.6014 13.879 106 106 106
0.82919 1.6105 13.583 102 102 102
0.81134 1.6267 13.353 99 99 99
0.79273 1.6395 13.113 97 97 97
0.76443 1.6313 12.749 80 80 80
0.74087 1.6296 12.446 57 57 57
0.72598 1.6434 12.254 44 44 44
0.71465 1.6631 12.108 55 55 55
0.71323 1.7032 12.089 64 64 64
0.70099 1.719 11.931 55 55 55
0.60907 1.6639 10.748 48 48 48
0.59302 1.6614 10.541 70 70 70
0.57905 1.6624 10.361 87 87 87
0.57094 1.6771 10.257 92 92 92
0.56812 1.7052 10.22 70 70 70
0.56448 1.7306 10.173 89 89 89
0.5567 1.7443 10.073 87 87 87
0.54264 1.7393 9.8915 85 85 85
0.53567 1.7533 9.8016 88 88 88
0.52593 1.7583 9.6761 88 88 88
0.52041 1.775 9.6049 76 76 76
1.2429 -3.9062 18.093 126 126 126
1.2448 -3.8431 18.116 100 100 100
1.2528 -3.7965 18.212 107 107 107
1.2554 -3.7347 18.244 139 139 139
1.2506 -3.6527 18.185 100 100 100
1.2685 -3.6307 18.403 109 109 109
1.2767 -3.5819 18.503 119 119 119
1.2926 -3.5518 18.697 89 89 89
1.3011 -3.5017 18.8 58 58 58
1.3091 -3.4494 18.896 78 78 78
1.3243 -3.4136 19.083 65 65 65
1.3338 -3.3629 19.198 98 98 98
1.3488 -3.3239 19.381 143 143 143
1.3457 -3.243 19.342 97 97 97
1.4781 1.8392 20.907 91 91 91
1.4264 1.8542 20.275 103 103 103
1.3927 1.8873 19.863 94 94 94
1.2083 1.7786 17.61 94 94 94
0.98265 1.5699 14.854 109 109 109
0.95599 1.583 14.529 109 109 109
0.91582 1.5715 14.038 110 110 110
0.88563 1.5726 13.669 109 109 109
0.8711 1.5974 13.491 105 105 105
0.85492 1.6179 13.293 101 101 101
0.8304 1.6216 12.993 99 99 99
0.8058 1.6226 12.693 95 95 95
0.78382 1.6261 12.424 92 92 92
0.76787 1.6393 12.229 58 58 58
0.75498 1.657 12.071 42 42 42
0.74534 1.6801 11.953 48 48 48
0.65674 1.6491 10.871 53 53 53
0.64761 1.6659 10.759 59 59 59
0.63571 1.6753 10.613 69 69 69
0.61828 1.67 10.4 82 82 82
0.60484 1.6729 10.236 81 81 81
0.60166 1.7003 10.197 61 61 61
0.59739 1.7245 10.144 78 78 78
0.58894 1.7374 10.041 90 90 90
0.57794 1.7425 9.9064 86 86 86
0.57027 1.7556 9.8126 90 90 90
0.55815 1.7556 9.6645 86 86 86
0.55244 1.7725 9.5945 75 75 75
1.3071 -3.8947 18.044 121 121 121
1.3092 -3.8322 18.069 111 111 111
1.3184 -3.788 18.175 121 121 121
1.3242 -3.7341 18.241 107 107 107
1.3197 -3.6536 18.189 77 77 77
1.3325 -3.6165 18.337 97 97 97
1.3399 -3.5652 18.423 90 90 90
1.35 -3.5195 18.54 79 79 79
1.356 -3.4632 18.609 60 60 60
1.3622 -3.4068 18.681 64 64 64
1.3743 -3.3631 18.821 93 93 93
1.3927 -3.3321 19.035 162 162 162
1.4094 -3.2956 19.228 156 156 156
1.4056 -3.2143 19.183 71 71 71
1.5933 1.7978 21.317 72 72 72
1.5309 1.8078 20.591 91 91 91
1.4888 1.836 20.1 102 102 102
1.4704 1.8897 19.886 90 90 90
0.94808 1.5421 13.816 108 108 108
0.92579 1.5572 13.556 109 109 109
0.9156 1.5899 13.438 107 107 107
0.90408 1.6193 13.303 102 102 102
0.89001 1.6432 13.139 103 103 103
0.85576 1.6299 12.741 98 98 98
0.82662 1.6227 12.403 97 97 97
0.80834 1.6329 12.19 82 82 82
0.79318 1.6474 12.013 56 56 56
0.77909 1.6625 11.849 49 49 49
0.68794 1.634 10.79 55 55 55
0.67891 1.6517 10.685 56 56 56
0.66811 1.6646 10.559 72 72 72
0.65554 1.6724 10.413 78 78 78
0.64247 1.6778 10.261 67 67 67
0.63439 1.6939 10.166 50 50 50
0.62956 1.7172 10.11 74 74 74
0.61743 1.7218 9.9689 91 91 91
0.60603 1.727 9.8363 89 89 89
0.59877 1.742 9.7518 91 91 91
0.58808 1.7471 9.6274 88 88 88
0.58307 1.7665 9.5689 81 81 81
0.57292 1.7713 9.4508 73 73 73
1.377 -3.8994 18.064 107 107 107
1.38 -3.8389 18.098 105 105 105
1.3897 -3.7946 18.204 131 131 131
1.394 -3.7362 18.251 111 111 111
1.392 -3.6623 18.228 93 93 93
1.4054 -3.625 18.376 61 61 61
1.4159 -3.5799 18.493 90 90 90
1.4186 -3.5157 18.522 86 86 86
1.4214 -3.4518 18.552 87 87 87
1.4259 -3.3913 18.602 64 64 64
1.437 -3.3445 18.725 124 124 124
1.4625 -3.3268 19.007 181 181 181
1.4835 -3.2978 19.24 154 154 154
1.4793 -3.2159 19.192 91 91 91
1.6861 1.6449 21.441 66 66 66
1.6482 1.6891 21.02 65 65 65
1.6192 1.7391 20.698 61 61 61
1.5706 1.765 20.159 91 91 91
1.5352 1.8014 19.766 102 102 102
1.5196 1.8582 19.593 100 100 100
1.4652 1.8655 18.989 88 88 88
1.3971 1.8504 18.234 111 111 111
0.98767 1.5262 13.696 107 107 107
0.95448 1.5259 13.327 107 107 107
0.94048 1.5525 13.172 108 108 108
0.92193 1.5705 12.966 105 105 105
0.91253 1.6018 12.862 104 104 104
0.89777 1.6232 12.698 100 100 100
0.8738 1.6272 12.432 100 100 100
0.85257 1.6338 12.196 97 97 97
0.83665 1.6483 12.02 85 85 85
0.72081 1.6237 10.735 57 57 57
0.71229 1.6432 10.64 42 42 42
0.70364 1.6617 10.544 46 46 46
0.69284 1.6747 10.424 54 54 54
0.68145 1.6853 10.298 49 49 49
0.67249 1.7005 10.198 40 40 40
0.6659 1.7203 10.125 61 61 61
0.65318 1.7249 9.9839 90 90 90
0.63573 1.7169 9.7905 92 92 92
0.62445 1.7225 9.6652 89 89 89
0.6098 1.7186 9.5028 89 89 89
0.60388 1.7358 9.437 84 84 84
0.5975 1.7512 9.366 68 68 68
0.5796 1.7354 9.1677 99 99 99
1.4294 -3.8601 17.897 84 84 84
1.4365 -3.8097 17.971 135 135 135
1.4489 -3.7715 18.102 156 156 156
1.4594 -3.7278 18.213 95 95 95
1.4626 -3.6662 18.247 55 55 55
1.4753 -3.626 18.381 65 65 65
1.4859 -3.5798 18.492 92 92 92
1.4893 -3.5172 18.528 88 88 88
1.5 -3.4698 18.641 75 75 75
1.5048 -3.4089 18.691 60 60 60
1.5159 -3.3608 18.809 121 121 121
1.5459 -3.3496 19.127 180 180 180
1.5635 -3.3114 19.313 144 144 144
1.7613 1.5564 21.367 72 72 72
1.7158 1.5968 20.885 98 98 98
1.692 1.6539 20.632 54 54 54
1.6643 1.7049 20.337 53 53 53
1.6216 1.7378 19.885 94 94 94
1.5913 1.7805 19.563 102 102 102
1.5767 1.8382 19.408 112 112 112
1.5234 1.8492 18.843 96 96 96
1.4689 1.8538 18.264 106 106 106
1.4375 1.883 17.932 106 106 106
1.3691 1.8609 17.207 110 110 110
1.2792 1.8035 16.254 109 109 109
0.9773 1.4889 13.057 109 109 109
0.96668 1.5203 12.944 106 106 106
0.9559 1.5506 12.829 106 106 106
0.94691 1.5827 12.734 106 106 106
0.93581 1.6106 12.616 104 104 104
0.91734 1.6252 12.42 103 103 103
0.90285 1.645 12.266 98 98 98
0.88548 1.6585 12.082 97 97 97
0.7479 1.6029 10.624 54 54 54
0.74256 1.6292 10.567 52 52 52
0.73585 1.6522 10.496 44 44 44
0.72691 1.6699 10.401 49 49 49
0.71729 1.6854 10.299 39 39 39
0.70989 1.7049 10.22 37 37 37
0.70444 1.7281 10.162 53 53 53
0.69667 1.7455 10.079 75 75 75
0.67471 1.7292 9.8468 89 89 89
0.66344 1.7363 9.7273 90 90 90
0.64099 1.7155 9.4895 87 87 87
0.63335 1.7291 9.4083 85 85 85
0.62796 1.7476 9.351 67 67 67
0.61465 1.7455 9.2099 92 92 92
1.4943 -3.8538 17.87 137 137 137
1.5021 -3.8046 17.949 139 139 139
1.5177 -3.7726 18.107 107 107 107
1.5294 -3.7305 18.225 66 66 66
1.5363 -3.6767 18.294 58 58 58
1.5517 -3.6409 18.451 80 80 80
1.5642 -3.5978 18.578 74 74 74
1.5701 -3.5394 18.636 68 68 68
1.5801 -3.4892 18.738 58 58 58
1.58 -3.4178 18.736 68 68 68
1.5962 -3.3785 18.9 128 128 128
1.637 -3.3852 19.315 159 159 159
1.6554 -3.3462 19.502 86 86 86
1.6539 -3.269 19.485 70 70 70
1.8387 1.4709 21.321 102 102 102
1.7826 1.5058 20.752 87 87 87
1.7553 1.5614 20.475 130 130 130
1.7168 1.6041 20.083 50 50 50
1.7031 1.6675 19.943 45 45 45
1.6646 1.7049 19.552 105 105 105
1.6399 1.7534 19.301 97 97 97
1.6265 1.8121 19.165 112 112 112
1.5741 1.8256 18.632 109 109 109
1.5378 1.8536 18.264 97 97 97
1.5195 1.9004 18.078 101 101 101
1.4409 1.8698 17.28 111 111 111
1.3699 1.8425 16.56 110 110 110
1.3134 1.8286 15.986 112 112 112
0.99765 1.4977 12.783 107 107 107
0.98508 1.5254 12.655 104 104 104
0.9724 1.5518 12.526 102 102 102
0.95892 1.5759 12.389 105 105 105
0.93748 1.5862 12.172 105 105 105
0.92239 1.605 12.018 101 101 101
0.9103 1.6276 11.895 97 97 97
0.89695 1.647 11.76 94 94 94
0.78291 1.5988 10.602 40 40 40
0.77704 1.6245 10.543 61 61 61
0.7709 1.6491 10.48 80 80 80
0.76215 1.6679 10.391 76 76 76
0.7523 1.6837 10.291 65 65 65
0.7447 1.7035 10.214 46 46 46
0.73931 1.7273 10.159 39 39 39
0.73087 1.744 10.073 54 54 54
0.70849 1.7289 9.8457 85 85 85
0.69449 1.731 9.7036 88 88 88
0.67312 1.7148 9.4868 87 87 87
0.66513 1.7283 9.4055 83 83 83
0.65967 1.7472 9.3499 68 68 68
0.65001 1.7555 9.2518 94 94 94
0.63435 1.748 9.0929 78 78 78
1.5481 -3.8227 17.737 137 137 137
1.5564 -3.7743 17.818 159 159 159
1.5657 -3.7276 17.908 116 116 116
1.5769 -3.6842 18.017 69 69 69
1.5835 -3.6299 18.08 72 72 72
1.5952 -3.5859 18.194 107 107 107
1.6081 -3.5434 18.319 69 69 69
1.6117 -3.4812 18.354 50 50 50
1.6214 -3.4307 18.448 51 51 51
1.6216 -3.3611 18.449 61 61 61
1.6316 -3.3101 18.547 75 75 75
1.6472 -3.2685 18.698 97 97 97
1.655 -3.2115 18.773 65 65 65
1.6564 -3.1428 18.787 85 85 85
1.6749 -3.1032 18.967 86 86 86
1.6776 -3.0357 18.992 49 49 49
1.9011 1.4562 21.134 109 109 109
1.8458 1.4929 20.595 91 91 91
1.8169 1.5472 20.312 140 140 140
1.7706 1.584 19.861 71 71 71
1.745 1.636 19.611 43 43 43
1.7081 1.6752 19.253 135 135 135
1.6826 1.7227 19.004 106 106 106
1.6664 1.7778 18.845 109 109 109
1.6201 1.799 18.394 108 108 108
1.593 1.8381 18.13 108 108 108
1.5757 1.8862 17.961 97 97 97
1.5309 1.8999 17.524 110 110 110
1.4877 1.912 17.103 112 112 112
1.3843 1.8432 16.097 116 116 116
1.3425 1.8476 15.689 109 109 109
1.027 1.5201 12.62 103 103 103
1.0057 1.5346 12.412 101 101 101
0.98612 1.5501 12.221 102 102 102
0.96511 1.5617 12.016 103 103 103
0.95261 1.585 11.894 99 99 99
0.94283 1.6116 11.799 98 98 98
0.93324 1.6377 11.705 97 97 97
0.81732 1.594 10.577 48 48 48
0.81042 1.6181 10.509 52 52 52
0.80315 1.6409 10.438 86 86 86
0.79542 1.6623 10.363 90 90 90
0.78456 1.6768 10.257 88 88 88
0.77622 1.6955 10.176 58 58 58
0.77126 1.7206 10.127 37 37 37
0.76286 1.7379 10.045 38 38 38
0.74445 1.7333 9.8659 66 66 66
0.73198 1.74 9.7444 79 79 79
0.70717 1.7185 9.5029 83 83 83
0.69399 1.7211 9.3745 85 85 85
0.68823 1.7397 9.3183 64 64 64
0.67941 1.7507 9.2323 90 90 90
0.66826 1.7555 9.1237 77 77 77
1.6139 -3.8203 17.727 79 79 79
1.6215 -3.7698 17.798 150 150 150
1.6325 -3.7259 17.901 154 154 154
1.6425 -3.679 17.994 72 72 72
1.646 -3.6181 18.026 77 77 77
1.6569 -3.5718 18.128 127 127 127
1.6726 -3.5341 18.275 79 79 79
1.6783 -3.4758 18.327 86 86 86
1.6855 -3.4201 18.395 106 106 106
1.6858 -3.3509 18.397 91 91 91
1.6943 -3.2965 18.476 63 63 63
1.7117 -3.2573 18.639 50 50 50
1.7164 -3.1947 18.682 44 44 44
1.7199 -3.1296 18.714 55 55 55
1.7398 -3.0915 18.9 76 76 76
1.9811 1.4553 21.125 127 127 127
1.8987 1.473 20.353 94 94 94
1.8703 1.5277 20.087 135 135 135
1.8225 1.5638 19.64 84 84 84
1.7737 1.5954 19.183 47 47 47
1.7439 1.6406 18.903 107 107 107
1.7187 1.6879 18.667 113 113 113
1.7054 1.7452 18.542 112 112 112
1.6702 1.7787 18.212 109 109 109
1.6502 1.8259 18.025 106 106 106
1.6369 1.8789 17.9 99 99 99
1.5928 1.8952 17.487 99 99 99
1.5673 1.9304 17.248 112 112 112
1.5387 1.9597 16.98 115 115 115
1.4031 1.8506 15.712 112 112 112
1.348 1.8365 15.197 106 106 106
1.0042 1.5132 11.98 103 103 103
0.99156 1.5374 11.862 104 104 104
0.97864 1.5602 11.741 102 102 102
0.96803 1.5855 11.642 100 100 100
0.95783 1.6106 11.546 98 98 98
0.93102 1.608 11.295 95 95 95
0.90993 1.6128 11.098 91 91 91
0.85581 1.5967 10.591 76 76 76
0.8462 1.6165 10.501 47 47 47
0.83561 1.6338 10.402 59 59 59
0.82797 1.6557 10.33 84 84 84
0.81756 1.6718 10.233 91 91 91
0.80916 1.691 10.154 65 65 65
0.8044 1.7167 10.109 38 38 38
0.79451 1.7317 10.017 40 40 40
0.77622 1.7287 9.8455 52 52 52
0.7624 1.7336 9.7161 82 82 82
0.73551 1.7096 9.4645 85 85 85
0.72289 1.7145 9.3464 77 77 77
0.71701 1.7332 9.2912 61 61 61
0.70782 1.7441 9.2051 87 87 87
0.69789 1.7526 9.1121 82 82 82
1.6743 -3.8068 17.67 96 96 96
1.6817 -3.7556 17.736 96 96 96
1.6921 -3.7097 17.829 112 112 112
1.6984 -3.6549 17.885 74 74 74
1.6965 -3.5837 17.869 60 60 60
1.7063 -3.5351 17.956 77 77 77
1.726 -3.5045 18.134 86 86 86
1.7399 -3.4616 18.258 73 73 73
1.7463 -3.4042 18.316 50 50 50
1.7473 -3.3365 18.324 73 73 73
1.7605 -3.2901 18.443 61 61 61
1.7717 -3.2392 18.543 46 46 46
1.7681 -3.1629 18.51 40 40 40
1.7638 -3.0856 18.471 47 47 47
1.7688 -3.0236 18.515 49 49 49
1.7804 -2.9714 18.62 53 53 53
1.7803 -2.9007 18.618 59 59 59
2.095 1.4784 21.422 134 134 134
1.9816 1.4767 20.4 84 84 84
1.9369 1.5198 19.997 134 134 134
1.8774 1.5476 19.461 87 87 87
1.8126 1.5664 18.877 71 71 71
1.781 1.6098 18.592 86 86 86
1.7611 1.6617 18.413 93 93 93
1.7481 1.7186 18.295 130 130 130
1.7192 1.7588 18.034 111 111 111
1.7034 1.8103 17.892 107 107 107
1.6916 1.865 17.785 114 114 114
1.6553 1.8915 17.458 98 98 98
1.6204 1.9169 17.144 95 95 95
1.593 1.9486 16.896 110 110 110
1.4787 1.8716 15.867 114 114 114
1.4249 1.8626 15.383 107 107 107
1.3699 1.8479 14.887 103 103 103
1.0269 1.5275 11.8 106 106 106
1.0096 1.5444 11.644 103 103 103
0.99321 1.5613 11.496 98 98 98
0.97539 1.5749 11.336 96 96 96
0.95578 1.5842 11.159 100 100 100
0.93984 1.598 11.015 92 92 92
0.90893 1.5861 10.737 91 91 91
0.89001 1.5919 10.566 87 87 87
0.88063 1.6127 10.482 73 73 73
0.86954 1.6297 10.382 49 49 49
0.85909 1.6471 10.287 51 51 51
0.84917 1.6647 10.198 69 69 69
0.84023 1.6833 10.117 60 60 60
0.83499 1.7083 10.07 41 41 41
0.82194 1.7178 9.9522 47 47 47
0.80579 1.7201 9.8067 41 41 41
0.79177 1.7256 9.6804 66 66 66
0.76644 1.7068 9.4524 88 88 88
0.754 1.713 9.3402 64 64 64
0.74804 1.732 9.2864 55 55 55
0.73727 1.7402 9.1893 90 90 90
0.72762 1.7501 9.1023 79 79 79
1.735 -3.7949 17.619 110 110 110
1.7394 -3.7372 17.657 109 109 109
1.7519 -3.6951 17.765 117 117 117
1.7587 -3.6412 17.824 63 63 63
1.7631 -3.5822 17.862 40 40 40
1.768 -3.5238 17.904 35 35 35
1.7888 -3.4941 18.084 58 58 58
1.7946 -3.436 18.134 98 98 98
1.8079 -3.3907 18.249 52 52 52
1.8098 -3.3248 18.265 54 54 54
1.8211 -3.2746 18.363 51 51 51
1.8297 -3.2192 18.437 48 48 48
1.8294 -3.1488 18.434 58 58 58
1.8283 -3.0772 18.424 60 60 60
1.831 -3.0116 18.447 57 57 57
1.8337 -2.9456 18.47 70 70 70
1.8353 -2.8779 18.483 48 48 48
1.8191 -2.7848 18.342 42 42 42
2.0793 1.4907 20.572 85 85 85
2.0262 1.5295 20.111 141 141 141
1.9611 1.5551 19.546 108 108 108
1.866 1.5514 18.72 85 85 85
1.8294 1.5909 18.402 124 124 124
1.8089 1.6421 18.224 63 63 63
1.7948 1.6977 18.1 133 133 133
1.7698 1.7419 17.884 115 115 115
1.7568 1.7962 17.77 107 107 107
1.7469 1.8529 17.684 113 113 113
1.7136 1.8835 17.394 109 109 109
1.6772 1.9085 17.078 93 93 93
1.6464 1.9371 16.81 101 101 101
1.588 1.931 16.303 110 110 110
1.4838 1.8648 15.399 109 109 109
1.4263 1.8497 14.9 105 105 105
1.0599 1.5152 11.722 105 105 105
1.0308 1.5162 11.469 104 104 104
1.0087 1.5251 11.277 96 96 96
0.99819 1.5493 11.186 97 97 97
0.98149 1.5636 11.04 100 100 100
0.96613 1.5787 10.907 97 97 97
0.93742 1.5716 10.658 93 93 93
0.9245 1.588 10.546 89 89 89
0.91421 1.6077 10.456 89 89 89
0.90263 1.6246 10.355 82 82 82
0.88878 1.6367 10.235 61 61 61
0.87602 1.6497 10.124 40 40 40
0.86232 1.6601 10.005 39 39 39
0.85458 1.6804 9.9378 42 42 42
0.84537 1.6974 9.8578 44 44 44
0.83267 1.7071 9.7474 43 43 43
0.81892 1.7138 9.628 47 47 47
0.79484 1.6991 9.4191 65 65 65
0.78567 1.7127 9.3393 51 51 51
0.77953 1.7319 9.2859 62 62 62
0.76672 1.7367 9.1746 80 80 80
0.75768 1.7485 9.0961 84 84 84
1.7892 -3.7709 17.517 57 57 57
1.7936 -3.7133 17.553 112 112 112
1.8059 -3.6705 17.656 96 96 96
1.8118 -3.6149 17.706 67 67 67
1.8166 -3.5569 17.745 42 42 42
1.8218 -3.4992 17.789 37 37 37
1.8383 -3.4611 17.927 51 51 51
1.8539 -3.4201 18.057 80 80 80
1.8733 -3.3848 18.22 55 55 55
1.8656 -3.3029 18.154 54 54 54
1.874 -3.2478 18.224 57 57 57
1.8808 -3.1896 18.281 69 69 69
1.8834 -3.1244 18.302 65 65 65
1.8838 -3.0557 18.305 57 57 57
1.8853 -2.9886 18.317 58 58 58
1.8811 -2.9132 18.282 50 50 50
1.8799 -2.8423 18.271 50 50 50
1.8733 -2.764 18.215 78 78 78
1.8607 -2.6782 18.109 82 82 82
1.8627 -2.6123 18.126 57 57 57
1.9516 -2.6567 18.871 51 51 51
2.1703 1.4991 20.676 94 94 94
2.1099 1.5345 20.17 137 137 137
2.0373 1.5564 19.561 118 118 118
1.9201 1.538 18.58 72 72 72
1.8796 1.5748 18.24 159 159 159
1.8511 1.6191 18.001 77 77 77
1.8395 1.6765 17.903 108 108 108
1.8188 1.7247 17.73 142 142 142
1.8072 1.7802 17.632 112 112 112
1.7989 1.8381 17.562 112 112 112
1.7614 1.8653 17.248 108 108 108
1.7233 1.8892 16.928 102 102 102
1.6864 1.9117 16.619 94 94 94
1.6432 1.9245 16.257 105 105 105
1.594 1.9272 15.844 110 110 110
1.4932 1.864 15 105 105 105
1.1459 1.5734 12.093 105 105 105
1.0468 1.5225 11.262 98 98 98
1.0306 1.5392 11.126 97 97 97
1.0148 1.5555 10.994 99 99 99
0.99647 1.5668 10.84 98 98 98
0.9696 1.5638 10.615 95 95 95
0.96124 1.5878 10.545 90 90 90
0.95434 1.6136 10.487 88 88 88
0.94507 1.635 10.409 89 89 89
0.92919 1.6448 10.276 89 89 89
0.91131 1.65 10.126 64 64 64
0.88838 1.6453 9.9342 44 44 44
0.8764 1.6583 9.8337 40 40 40
0.86679 1.6748 9.7531 44 44 44
0.85697 1.6902 9.6708 44 44 44
0.846 1.7027 9.5787 42 42 42
0.82342 1.6924 9.3896 41 41 41
0.81536 1.7086 9.322 54 54 54
0.81071 1.7311 9.2829 74 74 74
0.79979 1.7406 9.1913 72 72 72
0.78532 1.7421 9.0701 83 83 83
1.8333 -3.7293 17.34 85 85 85
1.8413 -3.6789 17.404 74 74 74
1.8567 -3.6417 17.529 62 62 62
1.8743 -3.6073 17.671 68 68 68
1.8769 -3.5452 17.692 53 53 53
1.8831 -3.4892 17.742 37 37 37
1.9139 -3.4747 17.991 42 42 42
1.9208 -3.4181 18.046 76 76 76
1.9303 -3.3654 18.123 88 88 88
1.924 -3.2867 18.072 53 53 53
1.9297 -3.2272 18.117 37 37 37
1.9356 -3.1678 18.165 56 56 56
1.9392 -3.1045 18.194 65 65 65
1.9368 -3.032 18.173 64 64 64
1.9295 -2.9528 18.114 61 61 61
1.9264 -2.8799 18.088 45 45 45
1.9186 -2.8009 18.025 51 51 51
1.9032 -2.7123 17.9 86 86 86
1.8982 -2.6381 17.859 69 69 69
1.9058 -2.5803 17.92 47 47 47
1.9449 -2.5607 18.237 46 46 46
1.9624 -2.5125 18.378 58 58 58
1.9646 -2.4455 18.395 40 40 40
2.2687 1.5119 20.833 100 100 100
2.1186 1.5614 19.618 129 129 129
1.9928 1.5397 18.599 53 53 53
1.9314 1.561 18.102 135 135 135
1.8992 1.6025 17.841 118 118 118
1.8793 1.6524 17.68 81 81 81
1.8655 1.7065 17.567 131 131 131
1.8504 1.7584 17.445 130 130 130
1.841 1.8148 17.368 112 112 112
1.7976 1.8366 17.017 112 112 112
1.7515 1.8527 16.644 105 105 105
1.723 1.8844 16.413 100 100 100
1.6771 1.895 16.041 96 96 96
1.6327 1.9042 15.681 102 102 102
1.5977 1.9214 15.398 100 100 100
1.2048 1.5931 12.219 103 103 103
1.1942 1.623 12.133 100 100 100
1.0793 1.5522 11.203 95 95 95
1.0548 1.5573 11.005 99 99 99
1.0306 1.5611 10.809 101 101 101
1.0017 1.5564 10.575 98 98 98
0.99248 1.5794 10.5 91 91 91
0.98649 1.6067 10.452 92 92 92
0.97388 1.6233 10.349 92 92 92
0.96209 1.6402 10.254 89 89 89
0.94155 1.6421 10.087 89 89 89
0.91798 1.6374 9.8967 77 77 77
0.90064 1.6419 9.7563 51 51 51
0.88619 1.6501 9.6392 42 42 42
0.87165 1.6573 9.5215 44 44 44
0.8581 1.6653 9.4117 42 42 42
0.84407 1.6714 9.2981 40 40 40
0.83843 1.6924 9.2523 54 54 54
0.83563 1.7184 9.2294 79 79 79
0.8303 1.7393 9.1861 67 67 67
0.8217 1.7534 9.1165 80 80 80
1.9191 -3.7673 17.502 71 71 71
1.927 -3.7157 17.564 93 93 93
1.9436 -3.6789 17.693 93 93 93
2.0291 -3.5526 18.363 28 28 28
2.0056 -3.445 18.177 40 40 40
1.9899 -3.3514 18.054 72 72 72
1.9827 -3.2719 17.997 90 90 90
1.9871 -3.2106 18.031 50 50 50
1.9949 -3.154 18.092 45 45 45
1.9986 -3.0909 18.12 69 69 69
1.9909 -3.0114 18.06 49 49 49
1.9761 -2.9227 17.943 60 60 60
1.9734 -2.8513 17.922 44 44 44
1.9741 -2.7844 17.927 29 29 29
1.9615 -2.7004 17.827 46 46 46
1.9574 -2.628 17.795 48 48 48
1.9651 -2.5702 17.855 37 37 37
1.9969 -2.5406 18.104 41 41 41
2.0178 -2.4963 18.267 53 53 53
2.0282 -2.4389 18.349 50 50 50
2.0644 -2.4088 18.632 35 35 35
2.4378 -2.2357 21.555 38 38 38
2.3495 1.5125 20.842 109 109 109
2.2893 1.5515 20.37 128 128 128
2.2047 1.5694 19.707 131 131 131
2.0591 1.5366 18.567 59 59 59
1.9784 1.5444 17.935 107 107 107
1.945 1.5851 17.673 123 123 123
1.9206 1.6312 17.482 95 95 95
1.9129 1.6902 17.421 76 76 76
1.8913 1.7361 17.252 140 140 140
1.8787 1.789 17.152 122 122 122
1.8327 1.8087 16.792 117 117 117
1.7934 1.8322 16.485 106 106 106
1.7661 1.8655 16.27 105 105 105
1.7186 1.8755 15.899 102 102 102
1.658 1.8679 15.424 93 93 93
1.5436 1.7956 14.528 94 94 94
1.2573 1.5598 12.288 98 98 98
1.241 1.5837 12.16 102 102 102
1.2325 1.6166 12.093 100 100 100
1.2132 1.6348 11.942 99 99 99
1.1199 1.5931 11.212 96 96 96
1.0342 1.55 10.54 100 100 100
1.0249 1.5733 10.468 95 95 95
1.0197 1.6019 10.426 94 94 94
1.0035 1.6135 10.299 91 91 91
0.99435 1.635 10.228 91 91 91
0.97917 1.6464 10.109 90 90 90
0.92075 1.6197 9.6515 52 52 52
0.89534 1.6099 9.4526 47 47 47
0.8857 1.6255 9.377 43 43 43
0.87774 1.6435 9.3145 43 43 43
0.86663 1.6553 9.2275 43 43 43
0.86136 1.677 9.186 46 46 46
0.85848 1.7027 9.1633 70 70 70
0.8544 1.726 9.1313 62 62 62
0.8441 1.7372 9.0505 70 70 70
2.0271 -3.3713 17.819 34 34 34
2.0181 -3.2903 17.751 57 57 57
2.0176 -3.2226 17.747 82 82 82
2.0247 -3.166 17.8 59 59 59
2.0271 -3.1022 17.818 59 59 59
2.0312 -3.0406 17.848 49 49 49
2.0257 -2.9657 17.807 56 56 56
2.0195 -2.8901 17.759 56 56 56
2.0094 -2.8098 17.682 57 57 57
2.0253 -2.7635 17.803 43 43 43
2.026 -2.6971 17.807 51 51 51
2.0228 -2.626 17.783 49 49 49
2.0246 -2.5611 17.796 60 60 60
2.0425 -2.5145 17.931 51 51 51
2.0602 -2.4665 18.065 49 49 49
2.0681 -2.4068 18.125 55 55 55
2.08 -2.3508 18.215 43 43 43
2.1054 -2.3079 18.407 26 26 26
2.1329 -2.2655 18.616 18 18 18
2.4225 1.5081 20.79 116 116 116
2.1327 1.5389 18.593 69 69 69
2.0411 1.5407 17.898 102 102 102
1.999 1.5753 17.578 78 78 78
1.9707 1.6184 17.363 108 108 108
1.9567 1.6718 17.257 64 64 64
1.9397 1.7217 17.128 100 100 100
1.9238 1.7715 17.007 139 139 139
1.8746 1.789 16.634 115 115 115
1.84 1.8176 16.371 105 105 105
1.8096 1.8482 16.14 106 106 106
1.7624 1.8596 15.782 103 103 103
1.2732 1.5271 12.074 96 96 96
1.2479 1.5401 11.882 100 100 100
1.2406 1.5735 11.827 99 99 99
1.2304 1.6029 11.749 98 98 98
1.224 1.6364 11.701 98 98 98
1.2044 1.6522 11.552 95 95 95
1.064 1.5768 10.487 97 97 97
1.0559 1.6017 10.426 96 96 96
1.031 1.6012 10.237 94 94 94
1.0167 1.6152 10.129 92 92 92
1.0038 1.6303 10.03 93 93 93
0.98295 1.6323 9.8724 67 67 67
0.96014 1.6297 9.6994 68 68 68
0.90176 1.6304 9.2567 40 40 40
0.89353 1.6476 9.1942 42 42 42
0.88892 1.6706 9.1591 42 42 42
0.88554 1.6956 9.1333 52 52 52
0.88091 1.718 9.0981 56 56 56
0.87426 1.7364 9.0475 68 68 68
2.0795 -3.3491 17.711 46 46 46
2.0689 -3.2665 17.633 48 48 48
2.0712 -3.2032 17.649 32 32 32
2.0798 -3.1489 17.712 42 42 42
2.0847 -3.0889 17.747 49 49 49
2.0885 -3.027 17.775 63 63 63
2.0822 -2.9516 17.728 65 65 65
2.0829 -2.8856 17.733 82 82 82
2.0686 -2.8005 17.628 47 47 47
2.0866 -2.7564 17.76 44 44 44
2.086 -2.6885 17.755 78 78 78
2.0839 -2.6191 17.739 59 59 59
2.0903 -2.5595 17.786 71 71 71
2.1059 -2.5098 17.9 64 64 64
2.1213 -2.4589 18.014 42 42 42
2.1296 -2.3995 18.074 44 44 44
2.1447 -2.3467 18.185 45 45 45
2.1828 -2.3157 18.465 31 31 31
2.2159 -2.2776 18.708 29 29 29
2.2301 -2.2198 18.812 23 23 23
2.5194 1.5185 20.919 119 119 119
2.2 1.5367 18.57 64 64 64
2.1066 1.5392 17.884 84 84 84
2.0564 1.5686 17.515 50 50 50
1.9966 1.5874 17.075 86 86 86
1.9742 1.6331 16.91 94 94 94
1.9425 1.6695 16.677 51 51 51
1.9299 1.7207 16.583 123 123 123
1.8988 1.7544 16.355 134 134 134
1.8699 1.7882 16.142 109 109 109
1.8417 1.821 15.935 108 108 108
1.317 1.5277 12.079 95 95 95
1.2596 1.5047 11.657 98 98 98
1.253 1.5382 11.608 100 100 100
1.2491 1.5747 11.58 95 95 95
1.2468 1.6129 11.562 91 91 91
1.2441 1.6505 11.542 97 97 97
1.2417 1.6883 11.525 98 98 98
1.0515 1.5797 10.127 98 98 98
1.0338 1.589 9.9968 94 94 94
1.023 1.6074 9.9174 93 93 93
1.0102 1.622 9.823 78 78 78
0.99344 1.6297 9.6997 83 83 83
0.93515 1.6336 9.2711 41 41 41
0.9238 1.6461 9.1876 42 42 42
0.91842 1.668 9.148 42 42 42
0.91429 1.6918 9.1175 40 40 40
0.90954 1.7142 9.0825 43 43 43
0.90393 1.7347 9.0411 63 63 63
2.1267 -3.3204 17.572 71 71 71
2.1123 -3.2333 17.468 41 41 41
2.1192 -3.1773 17.517 48 48 48
2.1264 -3.1212 17.569 57 57 57
2.1361 -3.068 17.637 42 42 42
2.1451 -3.0134 17.701 26 26 26
2.1372 -2.9365 17.645 72 72 72
2.1368 -2.8694 17.641 93 93 93
2.1312 -2.7959 17.601 52 52 52
2.1523 -2.755 17.752 37 37 37
2.153 -2.6887 17.756 51 51 51
2.1515 -2.6201 17.745 59 59 59
2.1572 -2.5594 17.785 78 78 78
2.1747 -2.5113 17.91 56 56 56
2.1945 -2.4644 18.051 49 49 49
2.1947 -2.3964 18.052 47 47 47
2.1916 -2.3251 18.029 43 43 43
2.2119 -2.2765 18.174 41 41 41
2.2258 -2.2207 18.273 49 49 49
2.2446 -2.1686 18.407 27 27 27
2.6138 1.5268 21.021 134 134 134
2.2677 1.5349 18.552 61 61 61
2.1694 1.5358 17.851 53 53 53
2.1178 1.5653 17.483 46 46 46
2.0465 1.5765 16.974 51 51 51
1.9994 1.6028 16.638 83 83 83
1.9678 1.6389 16.412 56 56 56
1.9534 1.6879 16.309 73 73 73
1.927 1.7254 16.121 143 143 143
1.9031 1.7636 15.95 120 120 120
1.8765 1.7979 15.761 107 107 107
1.8363 1.8173 15.473 101 101 101
1.4066 1.5783 12.41 92 92 92
1.3793 1.5922 12.215 96 96 96
1.3365 1.5868 11.91 94 94 94
1.3228 1.613 11.812 92 92 92
1.3208 1.6526 11.797 61 61 61
1.319 1.6925 11.785 86 86 86
1.3119 1.7253 11.734 98 98 98
1.2901 1.7388 11.578 93 93 93
1.2746 1.7592 11.467 96 96 96
1.2573 1.7764 11.344 97 97 97
1.0514 1.565 9.8763 96 96 96
1.0402 1.5827 9.796 94 94 94
1.0273 1.5973 9.7042 92 92 92
1.0139 1.6104 9.6085 88 88 88
0.98611 1.6006 9.4103 89 89 89
0.96948 1.6066 9.2917 81 81 81
0.96252 1.627 9.2419 49 49 49
0.95376 1.6441 9.1794 41 41 41
0.94755 1.6649 9.1349 42 42 42
0.94311 1.6883 9.1031 41 41 41
0.93761 1.7096 9.0638 43 43 43
0.93136 1.7293 9.0191 61 61 61
2.1954 -3.3241 17.589 88 88 88
2.1753 -3.2296 17.45 47 47 47
2.1814 -3.1723 17.492 58 58 58
2.188 -3.1152 17.537 80 80 80
2.1952 -3.0585 17.587 53 53 53
2.202 -3.001 17.634 33 33 33
2.1938 -2.9241 17.576 29 29 29
2.1925 -2.8563 17.567 28 28 28
2.1873 -2.7838 17.53 42 42 42
2.2021 -2.7351 17.633 37 37 37
2.2087 -2.676 17.678 35 35 35
2.2043 -2.6046 17.648 51 51 51
2.2102 -2.5444 17.688 69 69 69
2.2228 -2.4908 17.775 58 58 58
2.2488 -2.4503 17.955 47 47 47
2.2344 -2.3682 17.855 44 44 44
2.224 -2.2908 17.783 56 56 56
2.7363 1.5506 21.312 148 148 148
2.338 1.5349 18.553 68 68 68
2.2237 1.5269 17.761 56 56 56
2.1618 1.5497 17.333 49 49 49
2.0813 1.5551 16.775 47 47 47
2.029 1.5776 16.412 62 62 62
1.9945 1.6113 16.174 84 84 84
1.9777 1.6576 16.057 60 60 60
1.956 1.6987 15.906 100 100 100
1.9339 1.7383 15.753 135 135 135
1.9065 1.7717 15.563 113 113 113
1.8615 1.787 15.251 105 105 105
1.786 1.7699 14.728 103 103 103
1.7317 1.7698 14.352 95 95 95
1.4184 1.587 12.183 92 92 92
1.3991 1.6092 12.049 94 94 94
1.3704 1.6193 11.85 95 95 95
1.3651 1.6553 11.814 46 46 46
1.3644 1.6965 11.808 79 79 79
1.3547 1.7265 11.741 98 98 98
1.3342 1.7425 11.599 92 92 92
1.3129 1.7562 11.451 94 94 94
1.2911 1.768 11.3 96 96 96
1.0607 1.5642 9.7051 97 97 97
1.0435 1.5728 9.5862 93 93 93
1.0305 1.5865 9.4956 91 91 91
1.0139 1.5941 9.3805 91 91 91
1.001 1.6064 9.2912 91 91 91
0.99086 1.6223 9.221 79 79 79
0.98298 1.6411 9.1664 46 46 46
0.97814 1.6643 9.1328 40 40 40
0.97315 1.687 9.098 40 40 40
0.96639 1.7065 9.0512 42 42 42
0.95856 1.7238 8.9968 44 44 44
2.2609 -3.3232 17.585 76 76 76
2.2389 -3.2269 17.436 67 67 67
2.2458 -3.1704 17.483 82 82 82
2.2497 -3.1096 17.508 69 69 69
2.2596 -3.0563 17.575 60 60 60
2.2676 -3 17.629 47 47 47
2.2558 -2.9191 17.548 39 39 39
2.2562 -2.8534 17.551 38 38 38
2.2512 -2.7815 17.517 24 24 24
2.2745 -2.7419 17.673 25 25 25
2.2855 -2.6874 17.748 30 30 30
2.284 -2.6188 17.737 47 47 47
2.292 -2.5604 17.791 35 35 35
2.3072 -2.5087 17.892 44 44 44
2.3296 -2.4634 18.043 72 72 72
2.3167 -2.3827 17.956 61 61 61
2.3152 -2.3135 17.946 51 51 51
2.3292 -2.2585 18.04 52 52 52
2.3446 -2.2039 18.143 46 46 46
2.3718 -2.1584 18.326 53 53 53
2.8416 1.5635 21.471 152 152 152
2.4173 1.5406 18.615 74 74 74
2.2817 1.521 17.702 66 66 66
2.2067 1.5356 17.197 66 66 66
2.1231 1.5399 16.634 51 51 51
2.0729 1.5645 16.296 57 57 57
2.0247 1.5879 15.971 108 108 108
2.0085 1.6342 15.862 112 112 112
1.9802 1.6696 15.671 69 69 69
1.9554 1.7064 15.504 122 122 122
1.9321 1.7431 15.347 124 124 124
1.8854 1.757 15.032 105 105 105
1.8319 1.762 14.672 102 102 102
1.7902 1.7754 14.392 98 98 98
1.7631 1.8011 14.209 94 94 94
1.4373 1.6039 12.017 90 90 90
1.4146 1.6215 11.864 92 92 92
1.3933 1.6394 11.72 45 45 45
1.3891 1.6762 11.692 74 74 74
1.378 1.7044 11.617 101 101 101
1.3595 1.7229 11.492 93 93 93
1.3394 1.7385 11.357 91 91 91
1.3178 1.751 11.211 97 97 97
1.3009 1.7683 11.097 98 98 98
1.2693 1.7652 10.884 97 97 97
1.0546 1.5425 9.4401 96 96 96
1.0459 1.5623 9.3816 94 94 94
1.0351 1.5785 9.3086 91 91 91
1.0281 1.5998 9.2614 88 88 88
1.0231 1.6237 9.2275 90 90 90
1.0157 1.6436 9.1775 84 84 84
1.0099 1.6656 9.1386 61 61 61
1.0044 1.6878 9.1015 41 41 41
0.99732 1.7071 9.0536 40 40 40
0.98903 1.724 8.9978 36 36 36
2.3174 -3.3101 17.522 97 97 97
2.297 -3.2171 17.388 76 76 76
2.3055 -3.1626 17.443 131 131 131
2.3091 -3.1015 17.466 153 153 153
2.3157 -3.0438 17.509 99 99 99
2.3201 -2.9832 17.538 48 48 48
2.3132 -2.909 17.492 55 55 55
2.3134 -2.8433 17.493 63 63 63
2.3098 -2.7733 17.469 44 44 44
2.3295 -2.7292 17.598 26 26 26
2.3407 -2.675 17.671 22 22 22
2.3385 -2.606 17.656 22 22 22
2.3429 -2.5439 17.685 28 28 28
2.3509 -2.4851 17.737 38 38 38
2.3699 -2.4366 17.862 85 85 85
2.367 -2.3664 17.842 82 82 82
2.3701 -2.3019 17.862 46 46 46
2.3838 -2.2466 17.952 39 39 39
2.399 -2.1919 18.051 41 41 41
2.4222 -2.1429 18.202 62 62 62
2.4849 -2.1243 18.613 56 56 56
2.5275 -2.0868 18.892 38 38 38
2.5554 -2.0359 19.074 32 32 32
2.5961 -1.9927 19.34 20 20 20
2.6066 -1.9264 19.409 24 24 24
2.6094 -1.8544 19.427 35 35 35
2.6372 -1.7982 19.609 57 57 57
2.9474 1.5761 21.625 142 142 142
2.8775 1.6196 21.167 118 118 118
2.3276 1.5075 17.566 75 75 75
2.2265 1.5054 16.904 71 71 71
2.1574 1.5203 16.452 56 56 56
2.1076 1.5455 16.125 36 36 36
2.06 1.5696 15.814 77 77 77
2.0379 1.611 15.669 112 112 112
2.0066 1.6438 15.463 68 68 68
1.9801 1.6788 15.29 74 74 74
1.9575 1.7159 15.142 135 135 135
1.9246 1.7424 14.926 116 116 116
1.8792 1.7558 14.629 101 101 101
1.8421 1.7744 14.385 100 100 100
1.8173 1.8031 14.223 96 96 96
1.4889 1.6129 12.073 93 93 93
1.4544 1.6187 11.848 88 88 88
1.429 1.6327 11.681 48 48 48
1.4148 1.658 11.588 73 73 73
1.4017 1.6839 11.502 102 102 102
1.3825 1.7018 11.376 96 96 96
1.3621 1.7172 11.243 95 95 95
1.3443 1.7346 11.125 98 98 98
1.3327 1.759 11.05 96 96 96
1.3179 1.7786 10.952 94 94 94
1.0832 1.5376 9.4166 97 97 97
1.0692 1.5503 9.3247 96 96 96
1.058 1.5662 9.2516 95 95 95
1.0505 1.5868 9.2022 91 91 91
1.0461 1.6114 9.173 90 90 90
1.045 1.641 9.1663 91 91 91
1.042 1.6673 9.1462 89 89 89
1.0366 1.6899 9.1108 71 71 71
1.0289 1.7086 9.0605 56 56 56
1.02 1.725 9.0022 36 36 36
2.3852 -3.3126 17.533 87 87 87
2.3568 -3.21 17.352 119 119 119
2.3678 -3.1585 17.422 124 124 124
2.3754 -3.1023 17.47 96 96 96
2.3798 -3.0418 17.498 62 62 62
2.3818 -2.9782 17.51 47 47 47
2.3765 -2.9061 17.477 55 55 55
2.3761 -2.8398 17.473 49 49 49
